ply
format ascii 1.0
element vertex 862
property float x
property float y
property float z
end_header
201.13600158691406 193.88800048828125 152.46400451660156
204.83200073242188 189.60800170898438 152.92799377441406
206.52000427246094 186.6719970703125 154.78399658203125
203.63999938964844 188.62399291992188 154.83999633789062
197.7519989013672 194.67999267578125 154.9199981689453
203.9040069580078 189.80799865722656 154.93600463867188
211.95199584960938 190.05599975585938 157.52000427246094
201.39999389648438 191.07200622558594 158.16799926757812
210.32000732421875 190.31199645996094 159.27200317382812
197.73599243164062 207.51199340820312 141.01600646972656
201.9600067138672 207.27999877929688 141.39199829101562
200.91200256347656 204.32000732421875 144.4239959716797
203.67999267578125 203.3520050048828 146.6719970703125
202.27999877929688 203.45599365234375 147.72799682617188
202.0240020751953 202.99200439453125 147.98399353027344
200.70399475097656 205.27999877929688 148.52000427246094
199.60800170898438 203.2239990234375 148.8560028076172
200.343994140625 204.4720001220703 148.99200439453125
200.6959991455078 204.17599487304688 151.9600067138672
200.63999938964844 204.39199829101562 152.27999877929688
196.54400634765625 192.5760040283203 140.93600463867188
200.86399841308594 193.8159942626953 144.73599243164062
200.98399353027344 194.92799377441406 144.93600463867188
201.58399963378906 194.61599731445312 144.96800231933594
199.84800720214844 193.8800048828125 146.15199279785156
201.08799743652344 194.0240020751953 146.656005859375
200.44000244140625 188.80799865722656 147.07200622558594
201.28799438476562 194.0 149.92799377441406
196.92799377441406 195.3520050048828 150.16799926757812
198.44000244140625 185.28799438476562 150.32000732421875
198.53599548339844 185.3679962158203 150.36000061035156
199.9040069580078 186.47999572753906 150.61599731445312
198.47999572753906 184.66400146484375 150.80799865722656
203.1439971923828 191.98399353027344 152.3280029296875
204.47999572753906 191.52000427246094 152.3520050048828
198.71200561523438 190.656005859375 152.55999755859375
198.67999267578125 190.84800720214844 152.5760040283203
203.8159942626953 188.5919952392578 153.17599487304688
202.8719940185547 188.16799926757812 153.5760040283203
199.33599853515625 192.06399536132812 153.60800170898438
199.61599731445312 192.3679962158203 153.83200073242188
202.79200744628906 191.39999389648438 153.83999633789062
198.17599487304688 194.36000061035156 154.88800048828125
197.447998046875 194.74400329589844 154.9759979248047
198.45599365234375 193.21600341796875 156.4239959716797
197.0959930419922 191.29600524902344 156.96800231933594
200.82400512695312 190.70399475097656 157.10400390625
202.72799682617188 189.38400268554688 158.5760040283203
201.94400024414062 189.16000366210938 159.1999969482422
199.4720001220703 187.29600524902344 161.67999267578125
206.21600341796875 203.49600219726562 155.29600524902344
207.60000610351562 206.45599365234375 155.91200256347656
199.82400512695312 200.49600219726562 136.16799926757812
200.16799926757812 200.98399353027344 136.6479949951172
200.60000610351562 199.44000244140625 136.70399475097656
201.27200317382812 199.8800048828125 137.53599548339844
199.15199279785156 197.26400756835938 138.26400756835938
200.19200134277344 206.9199981689453 138.27999877929688
200.04800415039062 205.89599609375 138.48800659179688
197.36000061035156 199.89599609375 138.61599731445312
206.0959930419922 195.55999755859375 139.08799743652344
200.39199829101562 201.44000244140625 140.01600646972656
199.62399291992188 202.8719940185547 140.0959930419922
200.25599670410156 206.37600708007812 140.38400268554688
203.27200317382812 193.8560028076172 132.3280029296875
202.16799926757812 199.44000244140625 134.15199279785156
199.71200561523438 203.92799377441406 134.96800231933594
201.0240020751953 200.60800170898438 135.49600219726562
204.00799560546875 201.95199584960938 136.07200622558594
200.70399475097656 207.26400756835938 136.16799926757812
199.39199829101562 203.04800415039062 136.5679931640625
204.5919952392578 201.10400390625 136.75999450683594
198.99200439453125 202.62399291992188 137.0800018310547
205.54400634765625 202.17599487304688 137.41600036621094
199.68800354003906 199.07200622558594 137.52000427246094
201.49600219726562 198.2480010986328 138.31199645996094
197.39999389648438 195.50399780273438 138.3520050048828
199.58399963378906 200.24000549316406 138.60000610351562
199.29600524902344 197.3520050048828 138.7519989013672
200.95199584960938 199.8560028076172 138.9600067138672
201.8000030517578 189.27200317382812 139.04800415039062
205.62399291992188 203.4320068359375 139.0959930419922
200.78399658203125 198.76800537109375 139.13600158691406
199.73599243164062 192.7760009765625 139.44000244140625
204.39999389648438 204.67999267578125 139.46400451660156
201.343994140625 198.68800354003906 139.9600067138672
205.27999877929688 199.20799255371094 140.07200622558594
196.1439971923828 195.60800170898438 140.08799743652344
203.8800048828125 195.96800231933594 140.11199951171875
203.9759979248047 195.52000427246094 140.13600158691406
199.3280029296875 194.5760040283203 140.3520050048828
199.6719970703125 202.24000549316406 140.7519989013672
203.04800415039062 200.80799865722656 140.79200744628906
201.94400024414062 202.27200317382812 140.8159942626953
201.8159942626953 193.8719940185547 141.33599853515625
203.83999633789062 196.72799682617188 141.9040069580078
203.08799743652344 187.8560028076172 142.23199462890625
207.75999450683594 186.47999572753906 142.39199829101562
201.72000122070312 198.7760009765625 142.48800659179688
209.24000549316406 198.9759979248047 143.91200256347656
206.1999969482422 197.46400451660156 144.447998046875
202.66400146484375 188.62399291992188 144.75999450683594
201.76800537109375 198.37600708007812 145.447998046875
204.27200317382812 194.4720001220703 145.96800231933594
205.0959930419922 197.03199768066406 147.5760040283203
203.20799255371094 190.62399291992188 148.21600341796875
205.60000610351562 190.44000244140625 148.33599853515625
207.2239990234375 193.38400268554688 149.9040069580078
203.78399658203125 197.1199951171875 152.26400756835938
205.3679962158203 198.01600646972656 152.61599731445312
205.73599243164062 199.552001953125 153.44000244140625
206.27200317382812 192.70399475097656 153.7519989013672
202.38400268554688 193.38400268554688 154.447998046875
204.61599731445312 194.86399841308594 154.552001953125
202.5760040283203 190.25599670410156 154.78399658203125
205.27200317382812 194.70399475097656 154.8159942626953
203.52000427246094 187.0240020751953 155.1840057373047
206.76800537109375 191.16000366210938 157.3520050048828
202.3679962158203 185.3040008544922 159.60800170898438
199.99200439453125 205.37600708007812 135.26400756835938
200.1840057373047 206.5279998779297 137.8800048828125
202.31199645996094 190.99200439453125 138.07200622558594
205.0240020751953 199.98399353027344 143.4239959716797
204.70399475097656 200.67999267578125 145.78399658203125
204.86399841308594 206.23199462890625 146.62399291992188
197.23199462890625 205.96800231933594 148.83200073242188
199.10400390625 206.2239990234375 150.3280029296875
203.1199951171875 193.8719940185547 132.3520050048828
202.6719970703125 193.9600067138672 132.6320037841797
205.37600708007812 202.46400451660156 133.98399353027344
199.447998046875 198.33599853515625 134.13600158691406
210.60000610351562 202.4720001220703 134.48800659179688
199.06399536132812 195.72000122070312 136.447998046875
203.06399536132812 190.6479949951172 136.47999572753906
204.3040008544922 190.9040069580078 147.72000122070312
204.7760009765625 191.13600158691406 148.23199462890625
202.3679962158203 192.37600708007812 148.83200073242188
206.03199768066406 191.86399841308594 149.51199340820312
208.46400451660156 189.1280059814453 151.6719970703125
200.0959930419922 190.656005859375 152.63999938964844
206.50399780273438 186.6719970703125 154.78399658203125
212.8159942626953 189.91200256347656 157.0800018310547
201.3040008544922 191.26400756835938 158.26400756835938
207.9759979248047 192.58399963378906 146.89599609375
202.45599365234375 194.00799560546875 147.83200073242188
203.76800537109375 191.0399932861328 148.96800231933594
203.15199279785156 189.84800720214844 149.72799682617188
211.76800537109375 191.93600463867188 151.39999389648438
201.9600067138672 188.06399536132812 152.99200439453125
203.2480010986328 188.8000030517578 154.39999389648438
208.38400268554688 185.1199951171875 156.49600219726562
205.13600158691406 185.82400512695312 157.8159942626953
204.66400146484375 186.9199981689453 158.72000122070312
201.3040008544922 188.3040008544922 159.38400268554688
205.6719970703125 186.50399780273438 159.62399291992188
201.53599548339844 212.447998046875 141.0959930419922
205.10400390625 203.1280059814453 145.4320068359375
203.60800170898438 203.3040008544922 146.6959991455078
199.46400451660156 202.44000244140625 151.24000549316406
204.92799377441406 191.60800170898438 137.5679931640625
198.6719970703125 190.9759979248047 137.5919952392578
206.2239990234375 189.82400512695312 137.82400512695312
206.79200744628906 189.46400451660156 137.94400024414062
205.04800415039062 191.24000549316406 138.05599975585938
204.6959991455078 191.17599487304688 138.8159942626953
204.88800048828125 187.9759979248047 138.88800048828125
204.07200622558594 191.3679962158203 138.95199584960938
204.3280029296875 191.17599487304688 139.3040008544922
202.51199340820312 190.656005859375 139.60000610351562
198.72000122070312 189.71200561523438 139.76800537109375
200.78399658203125 187.9759979248047 140.24000549316406
204.9199981689453 193.27999877929688 142.39999389648438
205.17599487304688 193.8800048828125 142.89599609375
206.39999389648438 187.23199462890625 143.0399932861328
206.0240020751953 193.9199981689453 143.07200622558594
200.60800170898438 185.60800170898438 143.80799865722656
204.36000061035156 188.38400268554688 143.88800048828125
205.4720001220703 186.05599975585938 143.95199584960938
200.72799682617188 192.4080047607422 144.4080047607422
204.9199981689453 184.25599670410156 144.41600036621094
199.98399353027344 193.9199981689453 144.447998046875
199.45599365234375 192.3679962158203 144.46400451660156
205.3040008544922 183.17599487304688 144.53599548339844
200.4239959716797 193.2239990234375 144.55999755859375
199.7760009765625 193.82400512695312 144.60000610351562
200.6320037841797 193.68800354003906 144.60800170898438
199.89599609375 193.27200317382812 145.28799438476562
199.62399291992188 193.38400268554688 145.72000122070312
201.0240020751953 189.41600036621094 146.0959930419922
201.8800048828125 186.552001953125 146.7519989013672
213.38400268554688 190.1999969482422 146.86399841308594
202.0 183.3520050048828 147.88800048828125
207.46400451660156 185.2480010986328 148.07200622558594
205.38400268554688 186.11199951171875 149.89599609375
206.0399932861328 185.5760040283203 150.343994140625
201.8560028076172 183.8800048828125 151.80799865722656
209.26400756835938 184.1439971923828 157.03199768066406
207.20799255371094 197.71200561523438 133.39999389648438
207.3040008544922 197.74400329589844 133.54400634765625
207.4080047607422 198.1199951171875 133.70399475097656
207.51199340820312 196.9759979248047 134.0240020751953
199.51199340820312 204.21600341796875 136.58399963378906
198.67999267578125 196.1439971923828 136.60000610351562
199.4080047607422 204.6959991455078 136.73599243164062
197.72000122070312 197.31199645996094 136.98399353027344
194.78399658203125 204.52000427246094 137.9199981689453
201.6959991455078 201.83200073242188 138.49600219726562
201.32000732421875 201.07200622558594 140.0959930419922
197.72000122070312 194.5919952392578 143.447998046875
200.05599975585938 186.24000549316406 147.2239990234375
198.8000030517578 184.8560028076172 150.3520050048828
206.99200439453125 181.53599548339844 151.05599975585938
207.41600036621094 181.29600524902344 151.23199462890625
208.51199340820312 186.29600524902344 151.5279998779297
207.76800537109375 186.08799743652344 151.9199981689453
208.1439971923828 183.6959991455078 153.8159942626953
204.20799255371094 183.11199951171875 157.45599365234375
205.3520050048828 184.447998046875 157.7519989013672
201.82400512695312 212.17599487304688 140.9600067138672
201.4239959716797 212.44000244140625 141.47999572753906
204.48800659179688 213.01600646972656 142.1999969482422
202.98399353027344 200.60000610351562 144.2480010986328
207.21600341796875 200.9600067138672 144.58399963378906
207.06399536132812 201.31199645996094 145.04800415039062
198.51199340820312 188.9759979248047 143.50399780273438
198.67999267578125 199.86399841308594 136.06399536132812
205.45599365234375 202.94400024414062 136.1999969482422
200.24000549316406 203.29600524902344 137.8719940185547
200.21600341796875 203.9199981689453 137.9600067138672
205.31199645996094 194.75999450683594 137.9759979248047
198.39199829101562 198.20799255371094 137.9759979248047
198.5919952392578 197.5679931640625 138.06399536132812
199.36000061035156 197.9759979248047 138.6719970703125
200.2239990234375 209.9199981689453 138.83200073242188
200.39199829101562 200.36000061035156 139.5760040283203
195.3280029296875 196.2239990234375 139.71200561523438
198.6719970703125 201.61599731445312 140.78399658203125
203.5760040283203 205.7760009765625 143.4720001220703
203.54400634765625 205.73599243164062 143.47999572753906
200.2239990234375 203.9199981689453 148.78399658203125
208.13600158691406 202.73599243164062 136.83999633789062
200.50399780273438 200.9040069580078 137.2239990234375
202.44000244140625 203.37600708007812 137.3679962158203
196.71200561523438 201.3679962158203 137.89599609375
200.72799682617188 198.24000549316406 139.20799255371094
200.8000030517578 193.60800170898438 139.44000244140625
206.63999938964844 195.3520050048828 139.51199340820312
198.61599731445312 193.656005859375 139.6320037841797
201.96800231933594 194.92799377441406 139.7760009765625
197.39999389648438 198.08799743652344 140.24000549316406
199.16799926757812 204.9600067138672 141.5279998779297
202.36000061035156 203.24000549316406 142.46400451660156
210.78399658203125 202.46400451660156 134.80799865722656
200.0800018310547 202.8159942626953 134.86399841308594
205.66400146484375 198.9199981689453 135.8560028076172
200.15199279785156 202.96800231933594 135.8800048828125
207.60000610351562 193.53599548339844 136.41600036621094
197.94400024414062 197.656005859375 136.47999572753906
201.3040008544922 204.3040008544922 136.50399780273438
197.96800231933594 198.2239990234375 137.26400756835938
200.17599487304688 196.4080047607422 137.27999877929688
201.88800048828125 198.92799377441406 137.60000610351562
199.6479949951172 194.0959930419922 138.15199279785156
200.6959991455078 198.78399658203125 138.37600708007812
195.9040069580078 195.552001953125 138.60800170898438
196.80799865722656 201.36000061035156 139.55999755859375
208.0399932861328 203.1439971923828 139.67999267578125
193.24000549316406 203.45599365234375 139.7519989013672
202.11199951171875 203.25599670410156 140.08799743652344
197.3520050048828 201.23199462890625 140.28799438476562
198.1439971923828 204.3040008544922 140.37600708007812
197.24000549316406 206.08799743652344 140.50399780273438
201.76800537109375 200.29600524902344 133.3520050048828
199.6479949951172 198.24000549316406 133.75999450683594
202.58399963378906 196.0240020751953 135.6320037841797
202.15199279785156 195.6479949951172 135.74400329589844
202.78399658203125 193.70399475097656 153.6479949951172
203.8000030517578 195.447998046875 153.83200073242188
207.3280029296875 193.75999450683594 154.3040008544922
207.16000366210938 194.19200134277344 154.71200561523438
206.54400634765625 191.4320068359375 156.46400451660156
207.2239990234375 192.19200134277344 156.61599731445312
203.53599548339844 199.72799682617188 156.76800537109375
210.79200744628906 198.23199462890625 156.8560028076172
206.39199829101562 190.93600463867188 156.93600463867188
204.50399780273438 200.25599670410156 157.51199340820312
212.15199279785156 199.72000122070312 157.52000427246094
203.27200317382812 201.1280059814453 158.4320068359375
212.0399932861328 195.3520050048828 160.0
211.3040008544922 193.48800659179688 145.0240020751953
203.37600708007812 199.72799682617188 134.3280029296875
202.98399353027344 199.37600708007812 134.46400451660156
203.08799743652344 201.03199768066406 134.49600219726562
199.0959930419922 203.17599487304688 135.21600341796875
199.03199768066406 203.52000427246094 135.23199462890625
203.4239959716797 201.72799682617188 135.27999877929688
202.5760040283203 200.60800170898438 135.47999572753906
200.24000549316406 201.39199829101562 136.04800415039062
199.88800048828125 202.98399353027344 136.06399536132812
199.50399780273438 205.84800720214844 136.1840057373047
203.06399536132812 201.70399475097656 136.1999969482422
200.44000244140625 202.07200622558594 136.2239990234375
212.8000030517578 201.50399780273438 136.79200744628906
199.4720001220703 202.33599853515625 136.8800048828125
208.2239990234375 202.6719970703125 136.9040069580078
212.68800354003906 201.78399658203125 137.3280029296875
195.37600708007812 200.67999267578125 137.3520050048828
195.46400451660156 200.0800018310547 137.44000244140625
201.04800415039062 202.38400268554688 137.52000427246094
202.0399932861328 201.62399291992188 137.6320037841797
195.5919952392578 202.28799438476562 138.25599670410156
201.61599731445312 200.70399475097656 139.10400390625
201.75999450683594 199.3520050048828 140.83200073242188
199.6959991455078 194.4320068359375 141.31199645996094
199.21600341796875 195.21600341796875 141.447998046875
201.8719940185547 200.4080047607422 141.74400329589844
205.1840057373047 195.68800354003906 142.06399536132812
198.1439971923828 205.20799255371094 142.21600341796875
202.89599609375 199.58399963378906 142.28799438476562
203.07200622558594 202.6320037841797 142.61599731445312
201.54400634765625 197.41600036621094 142.76800537109375
201.1439971923828 199.91200256347656 142.76800537109375
201.4720001220703 200.03199768066406 143.17599487304688
201.94400024414062 197.23199462890625 143.55999755859375
201.50399780273438 195.8719940185547 143.9600067138672
210.7760009765625 191.47999572753906 151.36000061035156
207.84800720214844 188.8800048828125 158.48800659179688
208.4239959716797 188.2239990234375 158.51199340820312
208.33599853515625 187.80799865722656 158.52000427246094
200.8000030517578 192.6479949951172 147.66400146484375
201.75999450683594 192.60000610351562 148.0
200.60800170898438 193.48800659179688 148.29600524902344
201.75999450683594 190.343994140625 150.5679931640625
199.86399841308594 194.2480010986328 152.21600341796875
208.37600708007812 187.29600524902344 153.25599670410156
207.4239959716797 188.343994140625 156.16799926757812
204.8800048828125 186.28799438476562 156.27200317382812
203.95199584960938 184.4720001220703 159.9040069580078
208.9600067138672 187.1439971923828 160.2239990234375
205.27200317382812 202.54400634765625 133.92799377441406
206.4080047607422 195.93600463867188 134.50399780273438
208.15199279785156 195.92799377441406 134.52000427246094
206.86399841308594 197.1280059814453 134.55999755859375
208.19200134277344 197.1199951171875 134.73599243164062
202.45599365234375 202.68800354003906 134.9759979248047
205.19200134277344 200.3520050048828 134.99200439453125
205.7519989013672 200.93600463867188 135.36000061035156
207.4320068359375 196.8560028076172 135.54400634765625
201.37600708007812 203.0399932861328 135.67999267578125
201.04800415039062 199.54400634765625 135.80799865722656
202.5279998779297 203.17599487304688 135.80799865722656
201.6320037841797 200.3040008544922 135.89599609375
202.13600158691406 202.46400451660156 135.96800231933594
200.49600219726562 201.71200561523438 135.98399353027344
200.83200073242188 202.3280029296875 136.11199951171875
200.96800231933594 201.52000427246094 136.552001953125
214.24000549316406 203.6959991455078 136.5760040283203
194.95199584960938 201.84800720214844 136.94400024414062
204.67999267578125 193.5679931640625 137.23199462890625
202.24000549316406 199.72799682617188 137.46400451660156
213.80799865722656 203.99200439453125 137.50399780273438
201.36000061035156 200.0 137.62399291992188
195.5760040283203 198.67999267578125 137.78399658203125
211.1840057373047 201.71200561523438 137.96800231933594
212.17599487304688 201.61599731445312 138.21600341796875
193.8159942626953 203.343994140625 139.0
203.20799255371094 206.80799865722656 139.08799743652344
204.08799743652344 198.2239990234375 139.28799438476562
193.3040008544922 203.4720001220703 139.39999389648438
204.71200561523438 205.91200256347656 139.60000610351562
203.0 206.5919952392578 139.80799865722656
204.48800659179688 193.92799377441406 140.63999938964844
204.36000061035156 194.03199768066406 140.63999938964844
203.83200073242188 192.38400268554688 140.91200256347656
196.06399536132812 193.10400390625 140.98399353027344
201.24000549316406 201.24000549316406 141.26400756835938
202.38400268554688 206.9600067138672 141.4080047607422
203.78399658203125 193.27200317382812 141.74400329589844
197.03199768066406 193.8159942626953 141.8719940185547
201.6320037841797 202.19200134277344 142.0959930419922
202.46400451660156 202.71200561523438 142.17599487304688
199.89599609375 196.71200561523438 142.25599670410156
200.61599731445312 197.5760040283203 142.26400756835938
199.93600463867188 199.62399291992188 142.447998046875
200.44000244140625 195.78399658203125 143.72799682617188
197.2239990234375 195.52000427246094 146.2239990234375
200.29600524902344 210.31199645996094 144.70399475097656
209.0 200.31199645996094 149.05599975585938
206.04800415039062 199.83200073242188 149.84800720214844
201.71200561523438 198.94400024414062 136.4080047607422
201.2239990234375 197.83999633789062 136.9199981689453
198.61599731445312 200.3280029296875 137.0399932861328
201.92799377441406 203.72799682617188 138.4720001220703
198.1280059814453 204.76800537109375 138.83999633789062
203.3520050048828 202.32000732421875 138.9199981689453
203.82400512695312 203.74400329589844 139.23199462890625
203.66400146484375 201.94400024414062 139.31199645996094
204.1280059814453 197.13600158691406 132.99200439453125
199.0 197.6959991455078 133.9600067138672
199.25599670410156 196.36000061035156 134.26400756835938
204.00799560546875 203.552001953125 134.4080047607422
202.9040069580078 203.63999938964844 134.47999572753906
207.39999389648438 192.63999938964844 135.24000549316406
201.32000732421875 194.61599731445312 136.45599365234375
212.3520050048828 204.63999938964844 136.45599365234375
199.72799682617188 199.67999267578125 138.32000732421875
203.9199981689453 196.98399353027344 148.86399841308594
208.0240020751953 197.74400329589844 150.91200256347656
203.00799560546875 199.21600341796875 153.11199951171875
203.38400268554688 194.51199340820312 154.656005859375
204.94400024414062 193.37600708007812 154.66400146484375
197.80799865722656 196.27200317382812 155.48800659179688
204.3280029296875 198.0240020751953 157.9199981689453
204.3520050048828 190.38400268554688 159.51199340820312
206.26400756835938 193.68800354003906 159.5279998779297
206.7760009765625 192.0959930419922 159.8719940185547
206.83200073242188 191.41600036621094 160.0959930419922
202.1280059814453 196.5679931640625 160.39199829101562
201.60000610351562 198.94400024414062 142.79200744628906
201.6719970703125 198.27999877929688 143.31199645996094
209.39999389648438 198.39199829101562 144.3520050048828
200.62399291992188 198.79200744628906 144.3679962158203
207.2239990234375 195.7519989013672 146.8719940185547
207.82400512695312 195.3040008544922 146.91200256347656
208.0399932861328 195.10400390625 147.20799255371094
200.1439971923828 197.0 147.39999389648438
206.9759979248047 196.1840057373047 150.8800048828125
206.01600646972656 196.49600219726562 154.62399291992188
203.6320037841797 197.20799255371094 156.1199951171875
204.20799255371094 197.66400146484375 156.3679962158203
206.13600158691406 194.07200622558594 156.447998046875
205.5279998779297 196.7760009765625 156.9199981689453
207.27200317382812 199.343994140625 157.58399963378906
205.51199340820312 194.6320037841797 157.5919952392578
206.80799865722656 193.4080047607422 157.94400024414062
208.36000061035156 199.11199951171875 158.45599365234375
203.9199981689453 191.4080047607422 138.9759979248047
203.36000061035156 189.656005859375 140.20799255371094
203.72000122070312 184.4239959716797 150.3040008544922
202.23199462890625 185.49600219726562 150.94400024414062
201.98399353027344 189.2239990234375 158.62399291992188
210.5760040283203 202.49600219726562 134.49600219726562
202.95199584960938 204.24000549316406 134.83999633789062
200.03199768066406 199.66400146484375 135.24000549316406
209.343994140625 201.7519989013672 135.83200073242188
200.3520050048828 203.5919952392578 136.4080047607422
204.54400634765625 203.24000549316406 136.53599548339844
200.54400634765625 204.27999877929688 138.07200622558594
204.50399780273438 202.49600219726562 138.54400634765625
201.73599243164062 198.36000061035156 138.9600067138672
200.78399658203125 198.72000122070312 139.11199951171875
201.06399536132812 197.9759979248047 139.3280029296875
197.76800537109375 205.21600341796875 140.00799560546875
198.19200134277344 201.71200561523438 140.21600341796875
205.49600219726562 197.2480010986328 144.78399658203125
205.16000366210938 196.78399658203125 145.04800415039062
199.76800537109375 197.72000122070312 151.75999450683594
203.25599670410156 197.3280029296875 153.32000732421875
205.6320037841797 197.6959991455078 156.08799743652344
203.53599548339844 196.00799560546875 158.53599548339844
209.3679962158203 199.49600219726562 158.54400634765625
209.38400268554688 190.73599243164062 159.19200134277344
208.66400146484375 191.83999633789062 159.25599670410156
207.75999450683594 201.3280029296875 144.04800415039062
207.27200317382812 201.17599487304688 144.343994140625
201.17599487304688 199.03199768066406 144.45599365234375
201.33599853515625 198.4239959716797 144.93600463867188
201.72000122070312 200.16799926757812 147.88800048828125
203.7519989013672 198.28799438476562 149.13600158691406
201.4720001220703 200.60000610351562 150.16000366210938
207.0800018310547 202.04800415039062 154.21600341796875
205.83200073242188 202.37600708007812 155.16799926757812
204.0800018310547 212.27200317382812 139.74400329589844
204.13600158691406 211.5679931640625 139.79200744628906
200.10400390625 211.75999450683594 142.03199768066406
199.79200744628906 212.45599365234375 142.08799743652344
201.52000427246094 198.8800048828125 142.08799743652344
199.76800537109375 196.78399658203125 142.1280059814453
201.0 196.0399932861328 143.4080047607422
205.11199951171875 196.58399963378906 143.7760009765625
200.48800659179688 198.8560028076172 144.17599487304688
201.9040069580078 197.78399658203125 144.38400268554688
204.38400268554688 196.6479949951172 155.00799560546875
203.91200256347656 197.3520050048828 155.0240020751953
201.55999755859375 197.26400756835938 133.72799682617188
199.70399475097656 200.3520050048828 133.98399353027344
199.32000732421875 200.96800231933594 133.99200439453125
199.72000122070312 203.54400634765625 134.79200744628906
216.15199279785156 205.33599853515625 135.68800354003906
198.10400390625 204.343994140625 135.91200256347656
216.58399963378906 204.70399475097656 136.08799743652344
204.28799438476562 190.8800048828125 137.3280029296875
206.8719940185547 205.17599487304688 154.41600036621094
207.71200561523438 205.24000549316406 156.08799743652344
201.447998046875 205.45599365234375 147.60000610351562
204.3520050048828 202.9040069580078 149.25599670410156
203.01600646972656 203.63999938964844 151.4320068359375
203.08799743652344 203.19200134277344 152.88800048828125
202.48800659179688 201.78399658203125 152.95199584960938
202.33599853515625 202.29600524902344 153.53599548339844
202.32000732421875 200.6320037841797 135.53599548339844
202.05599975585938 200.62399291992188 136.0240020751953
200.33599853515625 202.98399353027344 136.16000366210938
201.1840057373047 202.76800537109375 136.47999572753906
212.16799926757812 201.04800415039062 136.51199340820312
213.95199584960938 200.8719940185547 136.552001953125
195.20799255371094 198.38400268554688 136.61599731445312
200.61599731445312 203.60800170898438 136.62399291992188
202.1439971923828 202.88800048828125 136.72000122070312
196.37600708007812 200.3520050048828 136.7760009765625
210.60800170898438 201.9759979248047 137.0
195.9759979248047 201.63999938964844 137.01600646972656
202.83200073242188 197.33599853515625 137.08799743652344
195.01600646972656 198.60000610351562 137.1439971923828
203.0399932861328 200.0959930419922 137.24000549316406
196.8560028076172 200.39999389648438 137.25599670410156
195.9759979248047 200.8000030517578 137.29600524902344
195.25599670410156 197.45599365234375 137.3040008544922
201.52000427246094 202.73599243164062 137.39199829101562
196.83999633789062 202.447998046875 137.39999389648438
211.23199462890625 203.31199645996094 137.45599365234375
203.28799438476562 199.9759979248047 137.656005859375
201.17599487304688 202.63999938964844 138.51199340820312
203.3520050048828 199.0240020751953 138.73599243164062
202.60000610351562 207.03199768066406 139.07200622558594
202.9040069580078 206.6320037841797 140.13600158691406
196.01600646972656 193.74400329589844 140.15199279785156
204.67999267578125 207.0240020751953 140.19200134277344
202.76800537109375 207.2239990234375 140.20799255371094
204.1199951171875 206.49600219726562 140.94400024414062
202.0 201.76800537109375 140.99200439453125
198.6719970703125 194.9199981689453 141.17599487304688
202.51199340820312 195.1840057373047 141.73599243164062
201.89599609375 202.0800018310547 142.37600708007812
203.16000366210938 199.88800048828125 142.61599731445312
202.48800659179688 195.15199279785156 142.72000122070312
203.01600646972656 199.62399291992188 142.76800537109375
202.16799926757812 201.03199768066406 143.20799255371094
201.60800170898438 200.552001953125 143.2480010986328
201.61599731445312 198.01600646972656 132.41600036621094
201.99200439453125 196.20799255371094 132.54400634765625
203.83200073242188 194.6479949951172 132.6959991455078
201.11199951171875 197.21600341796875 133.4239959716797
199.50399780273438 194.9040069580078 133.52000427246094
199.96800231933594 193.2239990234375 134.5919952392578
200.4320068359375 192.62399291992188 135.93600463867188
207.0959930419922 191.1840057373047 136.15199279785156
201.5679931640625 205.8159942626953 136.1840057373047
199.36000061035156 205.4320068359375 136.24000549316406
199.41600036621094 206.3520050048828 136.49600219726562
204.29600524902344 201.31199645996094 133.80799865722656
202.343994140625 199.08799743652344 133.9600067138672
202.91200256347656 199.33599853515625 134.44000244140625
201.70399475097656 204.33599853515625 135.9759979248047
202.4720001220703 197.8800048828125 136.10400390625
206.3040008544922 201.96800231933594 136.23199462890625
201.72799682617188 203.88800048828125 136.33599853515625
216.98399353027344 204.60800170898438 136.7760009765625
202.17599487304688 203.66400146484375 137.07200622558594
199.20799255371094 191.7519989013672 137.16799926757812
204.1999969482422 207.4320068359375 137.4720001220703
205.7519989013672 192.3679962158203 138.10400390625
204.60800170898438 197.70399475097656 138.91200256347656
204.48800659179688 196.99200439453125 139.67999267578125
201.8719940185547 190.99200439453125 143.63999938964844
202.2239990234375 190.3040008544922 144.73599243164062
199.91200256347656 182.5919952392578 155.37600708007812
199.7760009765625 182.38400268554688 156.08799743652344
208.75999450683594 183.41600036621094 159.79200744628906
204.10400390625 206.55999755859375 145.28799438476562
200.82400512695312 204.19200134277344 145.86399841308594
205.27200317382812 202.83200073242188 147.16799926757812
197.58399963378906 193.1999969482422 153.95199584960938
196.06399536132812 190.6719970703125 155.6959991455078
197.68800354003906 192.4080047607422 157.20799255371094
203.84800720214844 196.9759979248047 148.72799682617188
205.9759979248047 194.37600708007812 150.33599853515625
208.94400024414062 198.1280059814453 150.66400146484375
206.0 194.45599365234375 151.08799743652344
204.2239990234375 199.98399353027344 153.44000244140625
201.1840057373047 197.3280029296875 154.5279998779297
210.99200439453125 192.51199340820312 154.98399353027344
210.49600219726562 193.75999450683594 155.17599487304688
206.51199340820312 198.3040008544922 155.3520050048828
209.82400512695312 193.46400451660156 155.5279998779297
197.89599609375 199.06399536132812 155.79200744628906
206.68800354003906 199.0800018310547 155.82400512695312
209.03199768066406 197.0240020751953 155.89599609375
200.99200439453125 194.343994140625 156.06399536132812
200.92799377441406 194.36000061035156 156.1199951171875
206.29600524902344 191.9040069580078 156.1439971923828
203.23199462890625 201.15199279785156 158.447998046875
206.16799926757812 191.9600067138672 159.83200073242188
205.6479949951172 200.5919952392578 136.552001953125
202.5679931640625 202.0959930419922 137.8159942626953
198.96800231933594 195.25599670410156 138.33599853515625
202.72000122070312 202.4320068359375 138.75999450683594
194.2239990234375 202.86399841308594 138.95199584960938
200.32000732421875 193.80799865722656 139.61599731445312
199.39199829101562 194.5279998779297 140.0800018310547
200.5919952392578 202.96800231933594 145.20799255371094
198.99200439453125 188.83999633789062 139.53599548339844
199.08799743652344 188.0800018310547 139.79200744628906
199.37600708007812 187.91200256347656 140.0240020751953
201.5679931640625 193.67999267578125 141.83999633789062
198.60000610351562 193.15199279785156 141.98399353027344
208.32000732421875 188.37600708007812 142.70399475097656
201.99200439453125 193.99200439453125 143.4080047607422
198.80799865722656 186.83999633789062 144.0240020751953
198.6320037841797 186.29600524902344 144.0800018310547
203.72799682617188 191.92799377441406 144.2480010986328
211.19200134277344 191.10400390625 145.07200622558594
208.41600036621094 183.39999389648438 146.6479949951172
201.2239990234375 186.93600463867188 146.6479949951172
212.75999450683594 190.63999938964844 146.74400329589844
201.0399932861328 192.17599487304688 147.33599853515625
206.4080047607422 191.33599853515625 147.58399963378906
201.76800537109375 183.5760040283203 148.00799560546875
207.39999389648438 187.46400451660156 148.60800170898438
204.0800018310547 194.343994140625 148.99200439453125
208.83999633789062 191.552001953125 149.9759979248047
205.32000732421875 185.86399841308594 150.23199462890625
208.2239990234375 191.16000366210938 150.44000244140625
203.88800048828125 193.50399780273438 150.49600219726562
208.1840057373047 182.16000366210938 150.61599731445312
207.41600036621094 181.4320068359375 150.82400512695312
209.48800659179688 185.15199279785156 150.8800048828125
209.32000732421875 191.15199279785156 150.96800231933594
205.05599975585938 188.39999389648438 151.06399536132812
208.6479949951172 186.50399780273438 151.5760040283203
206.26400756835938 186.343994140625 154.5919952392578
206.45599365234375 186.70399475097656 154.76800537109375
208.1840057373047 182.58399963378906 154.8719940185547
207.73599243164062 186.9040069580078 155.0
211.13600158691406 181.73599243164062 155.23199462890625
201.8000030517578 191.63999938964844 155.26400756835938
201.20799255371094 192.29600524902344 155.46400451660156
199.8800048828125 190.32000732421875 155.6320037841797
204.8800048828125 185.0800018310547 155.656005859375
199.98399353027344 190.41600036621094 155.9759979248047
204.48800659179688 184.39199829101562 156.21600341796875
209.0240020751953 187.0240020751953 159.88800048828125
208.03199768066406 188.60800170898438 161.0240020751953
207.17599487304688 186.41600036621094 161.1840057373047
204.72000122070312 198.04800415039062 147.72000122070312
203.9600067138672 198.552001953125 148.2239990234375
209.11199951171875 200.51199340820312 149.45599365234375
202.8159942626953 199.8159942626953 149.47999572753906
201.60800170898438 200.24000549316406 149.84800720214844
206.8000030517578 200.55999755859375 153.46400451660156
202.343994140625 203.33599853515625 155.343994140625
206.7519989013672 204.19200134277344 155.343994140625
207.73599243164062 205.1280059814453 156.0800018310547
207.05599975585938 205.60000610351562 156.29600524902344
203.76800537109375 196.25599670410156 159.1840057373047
203.82400512695312 195.7760009765625 160.4239959716797
198.9040069580078 198.552001953125 135.41600036621094
201.9600067138672 203.75999450683594 135.48800659179688
201.1840057373047 198.54400634765625 136.343994140625
204.7760009765625 202.82400512695312 136.41600036621094
204.58399963378906 203.06399536132812 136.46400451660156
212.447998046875 204.31199645996094 136.48800659179688
200.70399475097656 199.16000366210938 137.01600646972656
199.62399291992188 198.6320037841797 137.13600158691406
199.9040069580078 203.21600341796875 138.10400390625
199.3040008544922 195.24000549316406 138.1199951171875
199.6719970703125 203.94400024414062 139.01600646972656
203.92799377441406 204.27999877929688 139.1280059814453
204.63999938964844 205.1840057373047 139.27200317382812
203.60000610351562 201.4239959716797 139.9199981689453
204.70399475097656 206.7519989013672 139.9199981689453
203.8560028076172 201.26400756835938 139.98399353027344
203.44000244140625 202.01600646972656 141.15199279785156
205.1280059814453 190.25599670410156 138.25599670410156
198.3520050048828 189.8000030517578 139.0240020751953
204.72799682617188 189.62399291992188 139.54400634765625
202.41600036621094 192.4080047607422 140.44000244140625
202.39199829101562 193.6719970703125 140.60000610351562
211.16000366210938 190.3520050048828 140.7519989013672
203.4239959716797 192.49600219726562 141.01600646972656
203.13600158691406 191.80799865722656 141.16799926757812
199.68800354003906 186.9759979248047 141.1840057373047
211.6959991455078 190.15199279785156 141.27200317382812
211.88800048828125 190.07200622558594 141.31199645996094
202.5760040283203 191.9199981689453 141.51199340820312
205.96800231933594 185.33599853515625 142.1999969482422
206.4720001220703 185.96800231933594 142.24000549316406
203.96800231933594 190.52000427246094 142.5760040283203
202.29600524902344 185.72799682617188 143.0399932861328
198.6719970703125 186.8159942626953 144.03199768066406
198.49600219726562 186.29600524902344 144.0959930419922
197.7519989013672 186.54400634765625 144.17599487304688
207.21600341796875 187.75999450683594 144.53599548339844
204.51199340820312 191.84800720214844 144.67999267578125
206.1439971923828 183.27999877929688 145.31199645996094
202.86399841308594 186.07200622558594 145.99200439453125
203.15199279785156 190.5760040283203 146.25599670410156
203.46400451660156 189.01600646972656 146.83999633789062
207.60000610351562 185.24000549316406 148.07200622558594
206.04800415039062 187.78399658203125 148.25599670410156
206.31199645996094 185.0240020751953 149.6320037841797
206.1439971923828 185.11199951171875 149.7519989013672
199.95199584960938 186.46400451660156 150.72799682617188
208.55999755859375 186.50399780273438 151.54400634765625
208.52000427246094 186.44000244140625 151.5760040283203
200.6959991455078 185.79200744628906 152.13600158691406
202.29600524902344 184.13600158691406 152.92799377441406
201.67999267578125 183.1840057373047 153.447998046875
204.6719970703125 184.0800018310547 153.8719940185547
205.82400512695312 185.2239990234375 154.06399536132812
204.68800354003906 183.78399658203125 154.17599487304688
207.48800659179688 181.79200744628906 154.92799377441406
204.25599670410156 182.72799682617188 155.73599243164062
204.9600067138672 184.32000732421875 157.46400451660156
206.66400146484375 182.5279998779297 158.25599670410156
205.5919952392578 183.9040069580078 158.447998046875
203.5679931640625 202.0959930419922 135.4080047607422
207.94400024414062 194.05599975585938 135.7519989013672
211.55999755859375 201.98399353027344 135.8000030517578
197.93600463867188 203.24000549316406 136.0399932861328
200.6959991455078 202.3520050048828 136.0959930419922
202.99200439453125 202.82400512695312 136.0959930419922
197.47999572753906 203.08799743652344 136.1840057373047
211.9600067138672 200.6959991455078 136.3679962158203
211.79200744628906 202.72000122070312 136.44000244140625
211.9199981689453 201.31199645996094 136.447998046875
197.45599365234375 202.86399841308594 136.4720001220703
211.13600158691406 202.17599487304688 136.53599548339844
203.447998046875 203.49600219726562 136.656005859375
203.55999755859375 195.66400146484375 136.6959991455078
196.54400634765625 203.5679931640625 136.72000122070312
195.06399536132812 198.72799682617188 136.73599243164062
194.8719940185547 201.70399475097656 136.8560028076172
195.7760009765625 203.68800354003906 137.1439971923828
204.24000549316406 199.23199462890625 137.23199462890625
204.24000549316406 199.23199462890625 137.24000549316406
196.66400146484375 194.50399780273438 137.343994140625
197.07200622558594 194.13600158691406 137.4320068359375
203.75999450683594 194.9759979248047 137.8800048828125
199.13600158691406 193.3280029296875 137.95199584960938
198.15199279785156 194.0399932861328 138.11199951171875
203.0399932861328 194.73599243164062 138.5679931640625
196.51199340820312 199.96800231933594 138.93600463867188
205.5919952392578 203.4080047607422 139.1199951171875
202.06399536132812 205.44000244140625 139.49600219726562
202.82400512695312 206.49600219726562 139.5279998779297
200.8159942626953 193.84800720214844 139.656005859375
200.4239959716797 192.70399475097656 139.72000122070312
199.96800231933594 193.26400756835938 139.7760009765625
203.1840057373047 191.92799377441406 140.01600646972656
197.10400390625 200.39999389648438 140.33599853515625
203.1999969482422 192.31199645996094 140.47999572753906
201.55999755859375 202.28799438476562 140.5679931640625
206.9600067138672 202.73599243164062 140.9040069580078
203.39199829101562 200.343994140625 141.1280059814453
204.1199951171875 200.37600708007812 141.552001953125
197.49600219726562 203.60800170898438 142.0800018310547
208.27200317382812 193.75999450683594 142.54400634765625
208.93600463867188 193.46400451660156 143.31199645996094
208.80799865722656 193.5279998779297 143.71200561523438
198.95199584960938 198.4080047607422 144.92799377441406
212.29600524902344 204.73599243164062 136.48800659179688
203.99200439453125 203.8159942626953 136.8800048828125
203.46400451660156 204.38400268554688 136.91200256347656
203.9199981689453 204.2480010986328 137.0800018310547
200.51199340820312 199.5279998779297 137.08799743652344
202.7760009765625 196.7519989013672 137.1199951171875
204.0 203.79200744628906 137.1280059814453
207.23199462890625 189.93600463867188 137.47999572753906
205.2480010986328 196.26400756835938 137.55999755859375
205.45599365234375 195.4239959716797 137.72000122070312
206.36000061035156 193.16799926757812 137.82400512695312
200.4239959716797 202.74400329589844 138.1199951171875
197.74400329589844 203.5919952392578 138.27999877929688
200.05599975585938 202.25599670410156 138.33599853515625
204.72799682617188 201.32000732421875 138.86399841308594
205.95199584960938 200.7760009765625 138.94400024414062
205.95199584960938 201.0240020751953 138.98399353027344
198.0959930419922 197.4080047607422 139.06399536132812
197.2480010986328 204.16799926757812 139.07200622558594
197.9759979248047 196.54400634765625 139.21600341796875
199.84800720214844 202.6479949951172 139.67999267578125
204.6719970703125 195.05599975585938 141.31199645996094
207.3520050048828 194.32000732421875 141.38400268554688
208.29600524902344 194.19200134277344 141.5279998779297
203.98399353027344 196.2480010986328 141.54400634765625
205.67999267578125 202.74400329589844 141.71200561523438
201.5919952392578 202.2239990234375 142.10400390625
205.3520050048828 199.1439971923828 142.86399841308594
203.19200134277344 197.00799560546875 143.1199951171875
200.60000610351562 197.656005859375 151.4080047607422
210.13600158691406 197.9040069580078 156.72000122070312
209.5919952392578 197.8159942626953 156.9040069580078
206.13600158691406 195.60800170898438 157.0240020751953
207.10400390625 195.79200744628906 157.88800048828125
207.1999969482422 199.39199829101562 158.24000549316406
206.28799438476562 195.1840057373047 144.94400024414062
203.23199462890625 194.9199981689453 145.50399780273438
207.41600036621094 195.2480010986328 146.74400329589844
210.8159942626953 195.88800048828125 148.6719970703125
205.82400512695312 194.96800231933594 151.23199462890625
201.76800537109375 196.50399780273438 152.9600067138672
204.75999450683594 197.1840057373047 153.53599548339844
205.08799743652344 197.8560028076172 154.50399780273438
203.60000610351562 195.5679931640625 155.39199829101562
203.39199829101562 195.9040069580078 155.9759979248047
203.78399658203125 194.5279998779297 156.5679931640625
204.36000061035156 194.5760040283203 157.1999969482422
209.13600158691406 192.25599670410156 159.45599365234375
204.3280029296875 201.25599670410156 138.96800231933594
199.83999633789062 202.39199829101562 140.8800048828125
207.06399536132812 202.73599243164062 140.88800048828125
200.0399932861328 202.03199768066406 141.9600067138672
203.39199829101562 202.83200073242188 142.9040069580078
202.25599670410156 203.8159942626953 143.0240020751953
199.63999938964844 203.1999969482422 143.04800415039062
204.51199340820312 191.0399932861328 139.11199951171875
205.37600708007812 190.7760009765625 139.37600708007812
204.1999969482422 189.8719940185547 139.6320037841797
205.1199951171875 189.1999969482422 139.84800720214844
204.03199768066406 188.82400512695312 140.16799926757812
204.29600524902344 189.36000061035156 141.2480010986328
206.5679931640625 187.3679962158203 141.37600708007812
200.83999633789062 191.98399353027344 141.4080047607422
204.552001953125 189.71200561523438 142.04800415039062
200.93600463867188 191.4239959716797 142.1199951171875
207.13600158691406 186.44000244140625 142.16000366210938
197.8719940185547 188.82400512695312 142.55999755859375
208.8000030517578 189.0399932861328 142.55999755859375
197.61599731445312 191.84800720214844 143.17599487304688
204.16000366210938 192.79200744628906 143.52000427246094
214.08799743652344 190.04800415039062 143.54400634765625
204.23199462890625 192.06399536132812 143.9199981689453
205.1199951171875 192.1199951171875 144.8800048828125
204.50399780273438 191.79200744628906 144.94400024414062
208.39199829101562 194.44000244140625 144.9600067138672
203.60000610351562 193.8719940185547 145.20799255371094
205.62399291992188 193.83200073242188 145.39999389648438
203.3679962158203 193.8560028076172 145.447998046875
204.89599609375 194.07200622558594 145.99200439453125
211.72799682617188 191.33599853515625 146.95199584960938
211.60800170898438 191.9040069580078 147.53599548339844
202.60800170898438 192.2239990234375 148.7519989013672
202.47999572753906 192.27999877929688 148.83999633789062
201.9040069580078 187.10400390625 149.19200134277344
209.25599670410156 190.95199584960938 149.4080047607422
208.93600463867188 192.05599975585938 149.72799682617188
207.91200256347656 183.54400634765625 150.4720001220703
208.17599487304688 191.94400024414062 150.54400634765625
209.0 190.1840057373047 150.5919952392578
208.17599487304688 182.16000366210938 150.6719970703125
200.73599243164062 190.1280059814453 150.68800354003906
209.8800048828125 191.32000732421875 151.0800018310547
200.95199584960938 187.15199279785156 151.17599487304688
210.62399291992188 191.4320068359375 151.2239990234375
203.49600219726562 193.0959930419922 151.27200317382812
208.5679931640625 186.06399536132812 151.76800537109375
200.83200073242188 185.60800170898438 152.16000366210938
210.15199279785156 185.72799682617188 154.05599975585938
206.98399353027344 188.94400024414062 154.1199951171875
204.75999450683594 181.6719970703125 154.3679962158203
202.0 188.5679931640625 154.4320068359375
